ply
format ascii 1.0
comment Generated by PDAL
element vertex 276
property float64 x
property float64 y
property float64 z
property uint16 intensity
property uint8 returnnumber
property uint8 numberofreturns
property uint8 scandirectionflag
property uint8 edgeofflightline
property uint8 classification
property float32 scananglerank
property uint8 userdata
property uint16 pointsourceid
property float64 gpstime
property uint16 red
property uint16 green
property uint16 blue
end_header
636327 849372 408.6 3 1 1 1 0 2 -12 128 7326 245384 90 95 106
636038 849338 423.06 147 1 1 0 0 2 -9 124 7326 245386 64 70 74
635681 849363 421.56 58 2 2 0 0 2 -1 126 7327 246093 64 73 78
635823 849299 426.61 179 1 1 0 0 2 -1 126 7327 246094 116 101 133
635980 849609 407.22 2 1 1 1 0 2 5 122 7327 246095 103 98 112
636087 849150 427.95 118 1 1 1 0 2 -5 122 7327 246096 168 126 152
636145 849152 428.02 115 1 1 0 0 2 -5 126 7327 246096 102 94 124
636460 849996 426.05 0 3 3 0 0 2 9 128 7327 246097 80 80 96
636551 849845 414.93 2 2 2 1 0 2 5 124 7327 246098 57 66 73
636726 850063 447.21 137 1 1 1 0 2 12 124 7327 246098 92 93 118
636645 849592 411.19 139 1 1 1 0 2 1 120 7327 246099 73 84 90
636607 849054 425.89 153 1 1 1 0 2 -10 126 7327 246099 143 106 134
636703 849271 411.15 37 1 1 1 0 2 -5 124 7327 246099 70 82 84
636699 848972 425.62 96 1 1 0 0 2 -10 124 7327 246100 207 177 196
636782 849043 426.41 157 1 1 1 0 2 -8 124 7327 246100 140 104 132
636966 849045 428.51 154 1 1 1 0 2 -11 124 7327 246101 102 102 126
637156 849779 425.66 83 1 1 1 0 2 3 126 7327 246101 58 71 74
637203 850169 427.43 27 3 3 0 0 2 -3 132 7328 246501 79 83 90
637136 850143 421.56 3 1 1 1 0 2 -1 124 7328 246501 54 64 66
636936 850369 441.14 146 1 1 1 0 2 -6 126 7328 246502 78 88 96
636865 850375 441.57 142 1 1 1 0 2 -8 126 7328 246503 127 99 134
636904 849568 411.09 7 1 1 0 0 2 9 130 7328 246503 74 88 94
636568 850179 441.8 165 1 1 0 0 2 -4 128 7328 246504 122 106 127
636299 849676 409.09 1 1 1 0 0 2 7 132 7328 246506 110 92 109
636269 849489 408.5 2 1 1 0 0 2 11 133 7328 246507 109 97 110
636087 849982 424.7 43 3 3 1 0 2 0 126 7328 246508 62 74 74
636024 850179 426.38 158 1 1 1 0 2 -5 124 7328 246508 136 105 138
635823 849938 407.22 74 1 1 0 0 2 1 128 7328 246509 98 102 114
635651 850244 424.93 33 1 1 1 0 2 -11 126 7329 247176 109 104 122
636083 850430 425.75 22 1 1 1 0 2 -7 124 7329 247178 127 97 130
636079 850168 426.51 158 1 1 0 0 2 -12 124 7329 247178 132 100 135
636158 850361 424.31 1 1 1 1 0 2 -7 124 7329 247179 152 110 148
636159 850173 427 136 1 1 0 0 2 -10 126 7329 247179 48 66 62
636229 850320 424.57 141 1 1 0 0 2 -8 126 7329 247179 62 80 80
636411 850211 434.48 127 1 1 0 0 2 -14 124 7329 247181 118 96 126
636579 850318 437.47 141 1 1 1 0 2 -12 126 7329 247182 130 102 130
636553 850068 445.67 153 1 1 1 0 2 -15 126 7329 247182 91 89 105
636764 850157 444.59 133 1 1 1 0 2 -10 124 7329 247183 132 107 142
636940 850317 442.62 114 1 1 1 0 2 -4 124 7329 247184 58 72 74
636989 850330 442.36 0 3 3 0 0 2 -5 124 7329 247185 54 69 69
638386 849355 425.23 134 1 1 0 0 2 -13 126 7326 245373 163 120 148
638278 849186 425.79 190 1 1 0 0 2 -11 130 7326 245373 116 113 140
637811 849127 411.78 2 1 1 0 0 2 -7 126 7326 245376 178 142 169
637635 849207 411.48 1 1 1 0 0 2 -9 126 7326 245377 108 92 106
637187 849495 411.35 225 1 1 1 0 2 -1 126 7327 246102 74 86 93
637257 849162 411.09 5 1 1 0 0 2 -7 124 7327 246102 80 88 95
637449 849747 428.08 173 1 1 0 0 2 4 126 7327 246103 140 106 134
637433 849568 420.28 25 3 3 0 0 2 0 124 7327 246103 52 66 65
637568 849748 429.33 146 1 1 1 0 2 4 126 7327 246104 63 70 70
637459 849262 411.19 11 1 1 0 0 2 -5 124 7327 246104 79 87 87
637531 849441 411.29 12 1 1 0 0 2 0 121 7327 246104 71 85 88
637796 849649 429.82 96 1 1 0 0 2 3 126 7327 246106 65 71 72
637879 849902 427.23 135 1 1 1 0 2 9 125 7327 246106 141 105 135
638036 849271 422.9 0 4 4 1 0 2 -4 134 7327 246108 113 113 133
638210 849254 428.54 0 3 3 0 0 2 3 128 7327 246109 84 94 104
638281 849337 429.63 113 1 1 0 0 2 5 128 7327 246109 146 124 146
638469 849984 425.72 28 2 2 1 0 2 18 131 7327 246110 103 100 124
638502 849993 426.35 169 1 1 0 0 2 18 127 7327 246110 86 80 100
638487 849360 424.61 177 1 1 0 0 2 5 129 7327 246111 114 104 132
638507 849178 425.75 175 1 1 1 0 2 0 128 7327 246111 162 126 156
638536 848900 419.03 176 1 1 1 0 2 -7 128 7327 246111 108 114 124
638822 849710 417.13 8 1 1 1 0 2 8 126 7327 246112 77 93 96
638836 849544 417.26 21 1 1 0 0 2 5 128 7327 246112 56 80 71
638837 849381 422.18 174 1 1 1 0 2 11 126 7328 246491 175 131 156
638650 850164 417.95 2 2 2 0 0 2 -5 127 7328 246491 98 98 114
638644 849996 417.16 39 1 1 1 0 2 -1 128 7328 246491 86 90 94
638228 850308 425.69 128 1 1 1 0 2 -11 124 7328 246493 115 105 121
638317 849479 423.92 68 1 1 1 0 2 6 126 7328 246494 147 103 123
638028 850417 424.7 119 1 1 0 0 2 -14 126 7328 246494 135 110 132
638150 849415 428.28 33 2 2 1 0 2 6 128 7328 246495 102 109 128
638104 849512 428.31 38 2 2 1 0 2 5 124 7328 246495 102 107 124
637972 850102 427.3 124 1 1 1 0 2 -5 127 7328 246495 150 117 149
637985 849882 427.95 118 1 1 1 0 2 0 126 7328 246495 94 92 104
638018 849423 427.53 131 1 1 1 0 2 13 126 7328 246495 101 101 125
637830 850283 425.85 113 1 1 1 0 2 -3 126 7328 246495 102 104 124
637870 849828 428.35 209 1 1 0 0 2 5 128 7328 246496 66 71 75
637701 850260 421.56 7 3 3 1 0 2 -3 128 7328 246496 70 86 90
637636 850225 425.46 102 1 1 1 0 2 -2 124 7328 246497 83 88 100
637473 850445 424.05 129 1 1 1 0 2 -6 126 7328 246498 135 107 133
637569 849854 427.26 167 1 1 0 0 2 4 128 7328 246499 136 102 136
637477 849600 424.97 19 1 1 1 0 2 9 125 7328 246500 83 86 98
637712 850058 426.51 181 1 1 0 0 2 -8 126 7329 247189 168 114 146
637978 850077 426.94 185 1 1 0 0 2 -11 130 7329 247191 112 106 124
638506 850077 428.15 0 2 2 0 0 2 -10 126 7329 247193 52 81 74
636941 850529 436.88 163 1 1 0 0 2 -9 128 7328 246502 123 95 120
636821 850477 436.84 70 1 1 1 0 2 -10 126 7328 246503 144 102 128
636356 850530 432.68 171 1 1 0 0 2 -12 128 7328 246505 148 114 146
635926 850603 425.82 21 1 1 1 0 2 -14 122 7328 246508 139 122 133
635793 851286 418.21 137 1 1 0 0 2 12 124 7329 247175 92 80 94
635889 851265 418.86 118 1 1 1 0 2 10 124 7329 247175 180 130 161
635759 850517 425.07 175 1 1 1 0 2 -5 126 7329 247176 115 96 128
635931 850902 423.46 12 2 2 1 0 2 4 124 7329 247176 116 108 126
635914 850730 424.77 151 1 1 0 0 2 1 124 7329 247176 180 128 165
636109 850940 422.87 114 1 1 1 0 2 4 124 7329 247177 104 98 122
636081 850687 424.28 155 1 1 1 0 2 -1 124 7329 247177 156 114 144
636175 850940 423.52 15 1 1 0 0 2 3 122 7329 247178 158 124 149
636114 850570 423.88 122 1 1 1 0 2 -4 124 7329 247178 153 112 142
636260 851042 425.03 131 1 1 1 0 2 5 124 7329 247178 72 81 89
636218 850734 425.56 34 1 1 1 0 2 0 124 7329 247178 160 134 151
636381 851312 418.31 109 1 1 0 0 2 12 125 7329 247178 138 108 142
636322 850549 430.64 147 1 1 1 0 2 -4 126 7329 247180 128 102 135
636532 851215 419 169 1 1 1 0 2 9 126 7329 247180 176 138 166
636577 851021 426.51 168 1 1 1 0 2 4 126 7329 247181 84 86 102
636964 850957 427.13 158 1 1 0 0 2 6 124 7329 247183 177 139 163
637005 850981 425.95 131 1 1 0 0 2 6 124 7329 247183 166 117 146
637086 850962 424.34 111 1 1 1 0 2 9 122 7329 247184 187 133 163
637145 851045 422.18 124 1 1 0 0 2 11 124 7329 247184 165 120 147
637160 850885 420.96 174 1 1 1 0 2 5 125 7329 247185 180 126 158
637081 851504 425.52 28 1 1 0 0 2 -4 126 7330 247567 151 132 142
637061 851347 424.31 40 1 1 0 0 2 0 124 7330 247567 162 134 156
637005 851489 425.46 98 1 1 0 0 2 -3 124 7330 247567 229 219 227
636946 851661 423.33 48 1 1 0 0 2 -7 124 7330 247567 185 164 177
636855 851482 422.38 20 1 1 0 0 2 -6 122 7330 247568 152 128 146
636917 850897 428.44 105 1 1 1 0 2 4 122 7330 247568 136 112 137
636718 851320 419.62 104 1 1 0 0 2 0 124 7330 247569 144 110 130
636542 851554 416.63 18 1 1 1 0 2 -6 124 7330 247569 191 168 183
636526 851477 418.14 169 1 1 1 0 2 -5 124 7330 247570 69 81 74
636383 851938 414.7 68 1 1 1 0 2 -14 124 7330 247570 64 76 75
636418 851574 417.75 144 1 1 1 0 2 -6 124 7330 247570 138 108 146
636492 850845 432.35 5 2 2 1 0 2 10 126 7330 247571 155 134 150
636258 851772 415.68 41 1 1 1 0 2 -8 126 7330 247571 164 134 154
636134 851372 420.41 160 1 1 0 0 2 0 126 7330 247572 141 112 144
635807 851648 416.7 154 1 1 1 0 2 -4 124 7330 247573 154 117 151
635773 851581 412.66 139 1 1 1 0 2 -3 124 7330 247574 165 130 155
635718 851746 418.86 11 3 3 0 0 2 -7 124 7330 247574 72 82 86
635700 851554 414.86 159 1 1 1 0 2 -4 126 7330 247574 52 68 73
635681 851384 419 99 2 2 1 0 2 -3 130 7330 247574 81 84 95
635720 852154 415.91 24 3 3 1 0 2 0 126 7331 248279 119 108 135
635818 852439 415.68 112 1 1 1 0 2 6 122 7331 248279 152 122 144
635886 852431 415.65 111 1 1 1 0 2 7 126 7331 248279 109 104 128
635733 851454 419.03 9 2 2 1 0 2 -13 128 7331 248280 106 102 126
635966 852266 416.21 204 1 1 1 0 2 4 124 7331 248280 100 100 123
635791 851378 419.29 143 1 1 0 0 2 -14 124 7331 248280 166 130 166
636009 852064 414.17 127 1 1 1 0 2 0 126 7331 248281 139 137 153
635958 851726 416.37 53 1 1 0 0 2 -7 125 7331 248281 130 114 131
636236 852536 421.46 26 1 1 0 0 2 14 122 7331 248281 163 137 155
636203 852288 417.26 140 1 1 0 0 2 9 122 7331 248282 90 93 115
636245 852312 417.81 158 1 1 1 0 2 6 122 7331 248282 88 96 116
636266 852026 415.09 177 1 1 1 0 2 0 124 7331 248282 96 100 121
636366 852073 415.72 102 1 1 0 0 2 4 122 7331 248283 95 100 118
636455 852070 424.15 147 1 1 1 0 2 2 122 7331 248283 110 101 110
636625 852300 417.75 82 1 1 0 0 2 5 126 7331 248284 131 110 127
636596 851332 419.95 131 1 1 0 0 2 -17 126 7331 248285 205 150 182
636934 852588 420.93 46 1 1 0 0 2 9 122 7331 248286 199 162 185
636898 852036 425.16 97 1 1 1 0 2 0 126 7331 248286 228 218 229
636965 852171 423.39 102 1 1 1 0 2 2 126 7331 248286 200 184 200
637031 852202 432.02 143 1 1 0 0 2 3 124 7331 248287 92 90 98
637138 852298 434.02 20 1 1 1 0 2 6 122 7331 248287 145 129 141
637224 852523 422.97 33 1 1 0 0 2 11 122 7331 248287 178 157 171
637255 852487 424.25 69 1 1 1 0 2 0 124 7332 248679 199 175 193
637021 852621 423.1 7 2 2 1 0 2 -1 120 7332 248680 74 80 86
637022 852143 442.26 86 1 1 1 0 2 9 120 7332 248681 87 92 100
636986 852000 444.19 82 1 1 1 0 2 14 120 7332 248681 80 88 95
636621 852810 421.03 5 1 1 0 0 2 -7 122 7332 248683 181 168 177
636506 852397 418.9 163 1 1 1 0 2 4 124 7332 248684 112 110 128
636480 852113 422.08 181 1 1 1 0 2 8 124 7332 248685 116 107 124
636299 852442 416.21 127 1 1 1 0 2 6 120 7332 248685 128 116 134
636202 851998 414.5 96 1 1 1 0 2 9 123 7332 248686 155 110 133
636104 852120 415.35 116 1 1 1 0 2 11 123 7332 248687 93 97 120
635746 852852 412.47 20 2 2 1 0 2 -5 128 7332 248688 58 77 70
635832 852057 416.5 29 1 1 1 0 2 11 126 7332 248689 154 131 144
635745 852632 417.98 93 1 1 0 0 2 -18 120 7333 249388 70 77 74
636160 852814 420.67 138 1 1 1 0 2 -10 124 7333 249390 111 98 126
636186 852685 419.59 102 1 1 0 0 2 -11 120 7333 249390 136 108 134
636302 852874 421.95 113 1 1 0 0 2 -7 125 7333 249390 152 126 148
636374 852863 420.18 0 3 3 0 0 2 -9 126 7333 249391 62 73 71
636570 852894 420.47 35 1 1 0 0 2 -6 124 7333 249392 100 88 96
636805 852922 423.2 139 1 1 0 0 2 -9 122 7333 249393 154 122 145
636865 852790 421.59 148 1 1 0 0 2 -13 122 7333 249394 120 105 137
637173 852701 420.9 149 1 1 1 0 2 -13 122 7333 249395 152 114 152
638349 850504 427.95 10 2 2 1 0 2 -14 128 7328 246492 118 107 124
638124 850610 424.97 23 1 1 0 0 2 -17 126 7328 246493 188 138 162
637944 850554 422.83 84 2 2 1 0 2 -16 128 7328 246495 112 118 129
637845 850559 424.18 187 1 1 1 0 2 -12 124 7328 246495 126 109 130
637391 850808 421 155 1 1 1 0 2 5 128 7329 247186 81 84 94
637504 850588 420.57 90 1 1 0 0 2 -3 128 7329 247187 103 89 105
637660 850632 421.56 68 3 3 1 0 2 -1 126 7329 247187 101 102 116
638004 851055 420.8 22 1 1 1 0 2 13 124 7329 247189 203 163 185
638038 850611 423.72 42 1 1 0 0 2 2 134 7329 247190 110 100 104
638600 850913 421.59 53 1 1 1 0 2 5 126 7329 247193 185 156 174
638920 851652 425.2 123 2 2 1 0 2 -9 128 7330 247556 72 82 89
638742 851310 420.41 122 1 1 0 0 2 -3 126 7330 247558 106 102 108
638778 850932 423.2 41 1 1 0 0 2 4 126 7330 247558 71 92 86
638721 850927 417.32 88 1 1 0 0 2 5 126 7330 247558 66 84 82
638595 850955 421.62 82 1 1 0 0 2 6 128 7330 247559 202 168 186
638592 850703 424.57 160 1 1 0 0 2 11 126 7330 247559 106 99 106
638561 850716 425.89 118 1 1 0 0 2 11 126 7330 247559 172 130 154
638368 851889 421.19 43 1 1 1 0 2 -14 133 7330 247559 83 95 91
638441 850659 424.84 22 1 1 0 0 2 10 126 7330 247559 205 153 180
638272 851081 419.42 70 1 1 1 0 2 4 141 7330 247560 180 152 166
638101 851910 425.33 7 1 1 0 0 2 -13 135 7330 247560 182 154 169
638185 850835 423.69 254 1 1 0 0 2 8 130 7330 247561 174 136 161
638061 851802 426.15 233 1 1 0 0 2 -11 130 7330 247561 156 122 150
637999 851541 423.46 28 1 1 1 0 2 -3 131 7330 247561 192 162 182
638084 850764 423.65 22 1 1 0 0 2 12 130 7330 247561 174 147 164
637857 851159 419.65 20 1 1 0 0 2 1 136 7330 247562 180 147 170
637727 851718 439.07 169 1 1 0 0 2 -9 128 7330 247562 109 107 128
637624 851653 451.31 13 1 1 1 0 2 -4 124 7330 247563 156 134 151
637553 851936 417.36 19 1 1 1 0 2 -10 126 7330 247563 189 133 182
637628 851196 421.65 37 1 1 1 0 2 4 126 7330 247564 168 138 157
637431 851955 417.68 28 1 1 1 0 2 -12 124 7330 247564 132 110 139
637485 851515 445.18 23 1 1 0 0 2 -4 126 7330 247564 154 135 157
637316 852265 475.43 13 1 1 0 0 2 9 124 7331 248288 141 124 135
637304 851523 451.9 81 1 1 0 0 2 -10 124 7331 248289 184 166 179
637497 851387 426.08 180 1 1 1 0 2 -9 125 7331 248290 147 117 140
637846 852383 424.05 39 1 1 0 0 2 8 126 7331 248291 146 137 144
637826 852025 426.71 159 1 1 1 0 2 1 124 7331 248291 130 112 133
638060 852291 420.21 1 1 1 1 0 2 9 128 7331 248293 179 163 171
637917 851288 420.83 41 1 1 0 0 2 -13 137 7331 248293 174 144 161
638160 852094 420.6 3 1 1 0 0 2 1 145 7331 248294 166 144 158
638208 852121 420.31 5 1 1 1 0 2 1 147 7331 248294 191 156 174
638148 851541 423 52 1 1 1 0 2 -12 147 7331 248294 171 140 157
638543 852107 421.95 59 1 1 1 0 2 0 136 7331 248296 146 132 144
638771 852454 422.67 69 2 2 0 0 2 11 128 7331 248296 51 73 66
638941 852174 425.3 85 1 1 1 0 2 6 130 7331 248298 71 81 87
638794 851256 420.14 0 2 2 1 0 2 -12 129 7331 248298 98 104 116
638608 852820 420.93 125 1 1 0 0 2 -4 127 7332 248670 158 127 145
638450 852286 419.42 35 1 1 1 0 2 4 128 7332 248672 183 146 164
638371 852414 417.55 20 1 1 1 0 2 1 126 7332 248672 183 148 169
638375 852292 420.18 1 1 1 0 0 2 3 130 7332 248672 174 149 164
638200 852486 422.38 45 1 1 1 0 2 2 126 7332 248673 170 148 159
638096 852150 420.11 1 1 1 0 0 2 6 130 7332 248674 172 141 158
638082 851969 425.39 21 1 1 1 0 2 10 126 7332 248674 180 150 167
638038 851998 423.88 189 1 1 1 0 2 10 128 7332 248675 152 128 153
638006 851961 424.67 45 1 1 1 0 2 11 128 7332 248675 153 136 144
637882 851961 427.23 31 1 1 1 0 2 10 128 7332 248675 117 107 107
637812 852121 425.52 174 1 1 0 0 2 7 128 7332 248676 124 110 128
637711 852486 424.84 108 1 1 0 0 2 0 128 7332 248676 230 216 228
637583 852740 423.36 0 2 2 1 0 2 -6 124 7332 248676 176 160 168
637472 852416 424.28 86 1 1 1 0 2 3 126 7332 248678 214 194 213
637402 852635 425 125 1 1 1 0 2 0 126 7332 248678 96 88 106
637373 852612 423.88 147 1 1 1 0 2 -16 124 7333 249396 125 112 131
637471 852624 425.66 65 2 2 0 0 2 -18 124 7333 249397 118 105 126
637617 852866 423.56 33 1 1 0 0 2 -9 124 7333 249397 150 130 144
637701 852745 423.23 134 1 1 0 0 2 -8 124 7333 249398 93 86 92
637927 852786 425.1 58 1 1 1 0 2 -9 124 7333 249399 134 114 138
637978 852566 424.15 36 1 1 1 0 2 -14 124 7333 249399 169 148 160
638066 852648 422.47 31 1 1 1 0 2 -14 124 7333 249399 144 128 141
638133 852599 424.02 31 1 1 0 0 2 -12 124 7333 249400 141 130 139
638314 852794 419.65 39 1 1 0 0 2 -7 124 7333 249401 164 140 153
638444 852655 421.69 69 1 1 0 0 2 -12 124 7333 249402 186 140 166
638650 852770 421.75 131 1 1 0 0 2 -9 125 7333 249402 84 96 88
638753 852541 423.1 172 1 1 1 0 2 -13 128 7333 249403 72 88 82
638905 852669 422.7 40 2 2 0 0 2 -15 126 7333 249404 120 120 140
636484 853170 418.14 168 1 1 0 0 2 -14 127 7332 248683 178 146 172
636097 853164 417.19 21 2 2 1 0 2 -11 125 7332 248686 70 74 78
635823 853230 419.72 39 1 1 1 0 2 0 128 7333 249387 141 125 137
635899 853017 415.49 80 2 2 1 0 2 -11 126 7333 249388 94 100 112
636006 853181 413.62 140 1 1 1 0 2 -8 122 7333 249388 177 137 163
636275 853491 414.27 103 1 1 1 0 2 5 124 7333 249389 117 97 122
636325 853187 418.31 111 2 2 0 0 2 0 126 7333 249390 118 113 135
636479 853019 420.01 25 1 1 1 0 2 -5 124 7333 249391 150 131 149
636816 853250 421.19 22 1 1 1 0 2 3 124 7333 249393 185 172 180
637196 853029 424.57 130 1 1 1 0 2 -4 124 7333 249395 162 139 164
637140 853182 423.06 1 2 2 1 0 2 12 126 7334 249775 94 84 94
636686 853301 420.6 25 1 1 1 0 2 9 124 7334 249778 176 171 184
636621 853297 420.6 32 1 1 1 0 2 12 124 7334 249778 153 124 138
636471 853325 417.65 206 1 1 0 0 2 14 126 7334 249779 74 92 86
636356 853502 419.65 83 1 1 0 0 2 10 123 7334 249779 180 144 172
636199 853390 409.65 104 1 1 1 0 2 3 126 7334 249781 105 105 123
636078 853477 419.39 36 1 1 1 0 2 4 126 7334 249782 174 146 160
635776 853535 423.82 25 1 1 1 0 2 5 126 7334 249783 140 133 140
638867 852935 423.59 2 1 1 0 0 2 -10 122 7332 248668 88 96 92
638608 852908 421.75 99 1 1 1 0 2 -6 128 7332 248670 104 110 111
638490 853075 419.75 153 1 1 1 0 2 -10 128 7332 248671 76 84 83
638228 853175 422.97 164 1 1 0 0 2 -14 128 7332 248672 164 123 152
637379 853416 409.19 11 1 1 0 0 2 1 122 7333 249395 100 98 116
637415 853304 422.77 167 1 1 1 0 2 0 122 7333 249395 116 104 131
637570 853213 424.34 165 1 1 0 0 2 -5 124 7333 249397 176 128 155
637709 853240 423.43 116 1 1 1 0 2 0 124 7333 249397 145 118 140
637796 853223 424.31 197 1 1 0 0 2 1 124 7333 249398 179 131 161
637920 853300 421.98 144 1 1 1 0 2 0 124 7333 249398 150 116 138
637957 853068 424.93 94 1 1 1 0 2 -3 122 7333 249398 225 221 226
638308 853303 419.78 158 1 1 1 0 2 3 123 7333 249400 186 130 162
638477 853013 418.47 61 1 1 0 0 2 -2 126 7333 249401 139 115 132
638080 853406 409.74 1 1 1 0 0 2 3 126 7334 249769 99 106 116
